ply
format ascii 1.0
element vertex 363
property float x
property float y
property float z
property float nx
property float ny
property float nz
property uchar red
property uchar green
property uchar blue
end_header
-0.09000000357627869 0.7400000095367432 0.004958520643413067 0.0 0.11471455544233322 -0.9933984875679016 154 177 213
-0.07999999821186066 -0.75 0.004023255314677954 0.07100296765565872 -0.08201884478330612 -0.9940983057022095 227 227 227
-0.07999999821186066 -0.7400000095367432 0.003066062228754163 -0.010314129292964935 -0.07981670647859573 -0.9967561960220337 227 227 227
-0.07999999821186066 -0.7300000190734863 0.001743808970786631 -0.027265850454568863 0.19071266055107117 -0.9812671542167664 227 227 227
-0.07999999821186066 -0.7200000286102295 0.004536243621259928 0.010395387187600136 0.04219774529337883 -0.9990552067756653 227 227 227
-0.07999999821186066 -0.7099999785423279 0.003747153328731656 0.05443910136818886 -0.07191672921180725 -0.9959238767623901 227 227 227
-0.07999999821186066 -0.699999988079071 0.0026916712522506714 -0.04183555021882057 -0.031057175248861313 -0.9986416697502136 227 227 227
-0.07999999821186066 -0.6899999976158142 0.0025201025418937206 -0.03191998973488808 0.05122726783156395 -0.9981767535209656 227 227 227
-0.07999999821186066 -0.6800000071525574 0.0034680955577641726 0.04036226123571396 -0.027262987568974495 -0.9988130927085876 227 227 227
-0.07999999821186066 -0.6700000166893005 0.0023075588978827 0.02834237925708294 -7.550754526164383e-05 -0.9995982646942139 227 227 227
-0.07999999821186066 -0.6600000262260437 0.002695439849048853 0.01928715780377388 -0.05473105236887932 -0.9983148574829102 227 227 227
-0.07999999821186066 -0.6499999761581421 0.0012129382230341434 -0.019286980852484703 0.18479469418525696 -0.9825878739356995 227 227 227
-0.07999999821186066 -0.6399999856948853 0.003965241834521294 0.022881966084241867 0.020033221691846848 -0.9995374083518982 227 227 227
-0.07999999821186066 -0.6299999952316284 0.002987857209518552 -0.05181681737303734 -0.08060694485902786 -0.9953981637954712 227 227 227
-0.07999999821186066 -0.6200000047683716 0.001632695086300373 -0.01585259847342968 0.1383003294467926 -0.9902634620666504 227 227 227
-0.07999999821186066 -0.6100000143051147 0.0038993079215288162 0.018988817930221558 0.009830133989453316 -0.9997713565826416 227 227 227
-0.07999999821186066 -0.6000000238418579 0.0028986791148781776 -0.030501926317811012 -0.08169738948345184 -0.9961903095245361 227 227 227
-0.07999999821186066 -0.5899999737739563 0.0015053944662213326 -0.0133944321423769 0.010136177763342857 -0.9998589158058167 227 227 227
-0.07999999821186066 -0.5799999833106995 0.0019759153947234154 0.015985284000635147 0.05977350100874901 -0.9980839490890503 227 227 227
-0.07999999821186066 -0.5699999928474426 0.0029342526104301214 0.02008087933063507 0.034725915640592575 -0.9991950988769531 227 227 227
-0.07999999821186066 -0.5600000023841858 0.0032628574408590794 0.011157327331602573 -0.04478249326348305 -0.9989344477653503 227 227 227
-0.07999999821186066 -0.550000011920929 0.002021313877776265 -0.0536595918238163 0.02717045322060585 -0.9981895685195923 227 227 227
-0.07999999821186066 -0.5400000214576721 0.002843697089701891 0.02045147493481636 0.025915421545505524 -0.999454915523529 227 227 227
-0.07999999821186066 -0.5299999713897705 0.0030622936319559813 0.03185035288333893 -0.05081620812416077 -0.998199999332428 227 227 227
-0.07999999821186066 -0.5199999809265137 0.0017384658567607403 -0.05654299259185791 0.11688438057899475 -0.9915346503257751 227 227 227
-0.07999999821186066 -0.5099999904632568 0.003767370944842696 0.01968497782945633 0.0013992746826261282 -0.9998052716255188 227 227 227
-0.07999999821186066 -0.5 0.0027192754205316305 -0.02661380171775818 -0.0837559923529625 -0.9961308240890503 227 227 227
-0.07999999821186066 -0.49000000953674316 0.0012474185787141323 -0.017631569877266884 0.1369939148426056 -0.9904149770736694 227 227 227
-0.07999999821186066 -0.47999998927116394 0.003491912502795458 -0.02233288250863552 -0.0041398112662136555 -0.9997420310974121 227 227 227
-0.07999999821186066 -0.4699999988079071 0.0023405696265399456 0.022535232827067375 -0.01511562429368496 -0.9996317625045776 227 227 227
-0.07999999821186066 -0.46000000834465027 0.002450610976666212 -0.039481271058321 0.03562933951616287 -0.9985848665237427 227 227 227
-0.07999999821186066 -0.44999998807907104 0.0030730662401765585 -0.018184099346399307 0.01722908951342106 -0.9996861815452576 227 227 227
-0.07999999821186066 -0.4399999976158142 0.003163190558552742 0.0295970868319273 -0.051829542964696884 -0.9982172846794128 227 227 227
-0.07999999821186066 -0.4300000071525574 0.0018811459885910153 -0.048952892422676086 0.09519708156585693 -0.9942540526390076 227 227 227
-0.07999999821186066 -0.41999998688697815 0.0036537377163767815 0.02008160948753357 0.011501328088343143 -0.9997321963310242 227 227 227
-0.07999999821186066 -0.4099999964237213 0.0029010882135480642 -0.027194904163479805 -0.05603130906820297 -0.998058557510376 227 227 227
-0.07999999821186066 -0.4000000059604645 0.0010456593008711934 -0.013291924260556698 0.08976469188928604 -0.995874285697937 227 227 227
-0.07999999821186066 -0.38999998569488525 0.002811347832903266 -0.013903017155826092 -0.01810210943222046 -0.9997394680976868 227 227 227
-0.07999999821186066 -0.3799999952316284 0.001748757204040885 0.05968991294503212 -0.02368154376745224 -0.9979360103607178 227 227 227
-0.07999999821186066 -0.3700000047683716 0.0016217157244682312 -0.03706992790102959 0.027766266837716103 -0.9989268779754639 227 227 227
-0.07999999821186066 -0.36000001430511475 0.002139885677024722 0.013647287152707577 0.012736148200929165 -0.9998257756233215 227 227 227
-0.07999999821186066 -0.3499999940395355 0.002232634462416172 0.0236478503793478 -0.061674583703279495 -0.9978161454200745 227 227 227
-0.07999999821186066 -0.3400000035762787 0.0008628499344922602 -0.011997254565358162 0.0888664573431015 -0.9959713220596313 227 227 227
-0.07999999821186066 -0.33000001311302185 0.0025456976145505905 -0.010154839605093002 -0.022343767806887627 -0.9996987581253052 227 227 227
-0.07999999821186066 -0.3199999928474426 0.0014641490997746587 0.057184718549251556 0.066154845058918 -0.99616938829422 227 227 227
-0.07999999821186066 -0.3100000023841858 0.002731125336140394 -0.01138377282768488 -0.02933819219470024 -0.9995047450065613 227 227 227
-0.07999999821186066 -0.30000001192092896 0.0016925311647355556 0.04999002069234848 -0.02392997220158577 -0.998462975025177 227 227 227
-0.07999999821186066 -0.28999999165534973 0.0015443377196788788 -0.02903575636446476 0.0527898333966732 -0.9981834292411804 227 227 227
-0.07999999821186066 -0.2800000011920929 0.002584558678790927 -0.007029818836599588 -0.021140728145837784 -0.9997518062591553 227 227 227
-0.07999999821186066 -0.27000001072883606 0.0017113963840529323 0.028068244457244873 -0.006336481776088476 -0.9995859265327454 227 227 227
-0.07999999821186066 -0.25999999046325684 0.0016409042291343212 -0.032380592077970505 -0.005674436222761869 -0.9994595050811768 227 227 227
-0.07999999821186066 -0.25 0.0018625359516590834 0.01715684123337269 -0.008612369187176228 -0.9998157024383545 227 227 227
-0.07999999821186066 -0.23999999463558197 0.0017251649405807257 -0.030086399987339973 -0.031997162848711014 -0.9990350008010864 227 227 227
-0.07999999821186066 -0.23000000417232513 0.0011400660732761025 -0.0189520251005888 0.027951283380389214 -0.9994295835494995 227 227 227
-0.07999999821186066 -0.2199999988079071 0.0014547787141054869 0.011641294695436954 0.049488771706819534 -0.9987068176269531 227 227 227
-0.07999999821186066 -0.20999999344348907 0.0023401391226798296 1.0079873391077854e-05 -0.045189183205366135 -0.9989784359931946 227 227 227
-0.07999999821186066 -0.20000000298023224 0.0012930001830682158 1.191141018352937e-05 0.05303492769598961 -0.9985926747322083 227 227 227
-0.07999999821186066 -0.1899999976158142 0.0021690211724489927 0.006310742348432541 -0.0412500761449337 -0.9991289377212524 227 227 227
-0.07999999821186066 -0.18000000715255737 0.000888252048753202 0.009521853178739548 0.006007086951285601 -0.9999366402626038 227 227 227
-0.07999999821186066 -0.17000000178813934 0.0016202953411266208 0.015541676431894302 0.03796005621552467 -0.9991583824157715 227 227 227
-0.07999999821186066 -0.1599999964237213 0.0020780647173523903 0.012170025147497654 -0.021771950647234917 -0.9996888637542725 227 227 227
-0.07999999821186066 -0.15000000596046448 0.0014681704342365265 0.014552874490618706 0.015536203980445862 -0.999773383140564 227 227 227
-0.07999999821186066 -0.14000000059604645 0.001962539739906788 0.01309548132121563 0.024043597280979156 -0.9996251463890076 227 227 227
-0.07999999821186066 -0.12999999523162842 0.0021935771219432354 -0.01848282292485237 -0.018556002527475357 -0.9996569752693176 227 227 227
-0.07999999821186066 -0.11999999731779099 0.0017607222544029355 0.15849268436431885 0.1638183444738388 -0.9736753106117249 227 227 227
-0.07999999821186066 -0.11142318695783615 0.009999999776482582 0.319314569234848 0.9165919423103333 -0.24061886966228485 116 115 112
-0.08178405463695526 -0.10999999940395355 0.009999999776482582 0.7218843698501587 0.6789222955703735 -0.1339683085680008 116 115 112
-0.08058220148086548 -0.10999999940395355 0.019999999552965164 0.7391621470451355 0.6661691665649414 0.09928726404905319 130 131 127
-0.07999999821186066 -0.11046485602855682 0.019999999552965164 0.4612453579902649 0.8839852213859558 0.07630757242441177 130 131 127
-0.08285148441791534 -0.10999999940395355 0.029999999329447746 0.6871537566184998 0.3879765570163727 -0.6142425537109375 39 46 69
-0.07999999821186066 -0.11457637697458267 0.029999999329447746 0.5466165542602539 0.7698920965194702 -0.32935774326324463 39 46 69
-0.07999999821186066 -0.10999999940395355 0.03187277913093567 0.19417758285999298 0.06841184943914413 -0.9785779714584351 39 46 69
-0.07999999821186066 -0.10000000149011612 0.03275148943066597 -0.03774173930287361 0.01419917307794094 -0.999186635017395 30 36 36
-0.07999999821186066 -0.09610030800104141 0.009999999776482582 0.0371878519654274 -0.9993031024932861 0.0032198207918554544 129 129 125
-0.07999999821186066 -0.09613273292779922 0.0 0.037506356835365295 -0.9992911219596863 0.003247386310249567 32 35 74
-0.07999999821186066 -0.09606827050447464 0.019999999552965164 0.04501296579837799 -0.9930615425109863 0.10863999277353287 113 112 106
-0.07999999821186066 -0.09000000357627869 0.028087981045246124 9.132586455962155e-06 -0.4864872694015503 0.8736876845359802 38 44 44
-0.07999999821186066 -0.09000000357627869 0.03191201761364937 1.0428565474285278e-05 -0.06822281330823898 -0.9976701140403748 38 44 44
-0.07999999821186066 -0.07999999821186066 0.028320245444774628 0.00405696127563715 0.03753441199660301 0.9992871284484863 38 46 46
-0.07999999821186066 -0.07999999821186066 0.031679753214120865 0.00405696127563715 0.03753441572189331 -0.9992871284484863 38 46 46
-0.07999999821186066 -0.07000000029802322 0.027590865269303322 0.003931047860532999 -0.04256139323115349 0.9990861415863037 42 48 48
-0.07999999821186066 -0.07000000029802322 0.03240913525223732 0.003931513521820307 -0.03968869149684906 -0.9992043375968933 42 48 48
-0.07999999821186066 -0.05999999865889549 0.028827235102653503 -0.025924861431121826 0.04007178172469139 0.9988604187965393 39 46 46
-0.07999999821186066 -0.05999999865889549 0.03120630420744419 -0.05665091052651405 0.06655385345220566 -0.9961733222007751 39 46 46
-0.08567199856042862 -0.05000000074505806 0.009999999776482582 -0.9240267872810364 0.3823202848434448 -0.0023939749225974083 94 148 153
-0.08569999784231186 -0.05000000074505806 0.0 -0.9284370541572571 0.3714805543422699 0.002605348825454712 44 69 109
-0.0858081802725792 -0.05000000074505806 0.019999999552965164 -0.9232303500175476 0.38012948632240295 0.05610121041536331 87 77 63
-0.07999999821186066 -0.05000000074505806 0.027702126652002335 -0.42986708879470825 0.1394289880990982 0.8920615911483765 39 46 46
-0.07999999821186066 -0.05000000074505806 0.03229787200689316 -0.013501938432455063 0.0921914130449295 -0.9956497550010681 39 46 46
-0.07999999821186066 -0.04364456236362457 0.0 -0.0895693302154541 0.9957139492034912 0.023045213893055916 61 70 71
-0.07999999821186066 -0.04387298598885536 0.009999999776482582 -0.09538109600543976 0.9952030777931213 0.02175501361489296 127 157 161
-0.07999999821186066 -0.0440855398774147 0.019999999552965164 -0.1615738421678543 0.957016110420227 0.240861177444458 66 83 141
-0.07999999821186066 -0.03999999910593033 0.033721115440130234 0.052822817116975784 -0.03140532225370407 -0.9981099367141724 77 82 81
-0.08208312839269638 -0.029999999329447746 0.009999999776482582 0.5916693210601807 -0.782293438911438 -0.1947931945323944 88 145 152
-0.08095543086528778 -0.029999999329447746 0.019999999552965164 0.6847316026687622 -0.7282765507698059 -0.02749297209084034 52 88 130
-0.08323188871145248 -0.029999999329447746 0.029999999329447746 0.6452254056930542 -0.6662709712982178 -0.373854398727417 52 62 102
-0.07999999821186066 -0.029999999329447746 0.031128130853176117 0.07300642877817154 -0.13214682042598724 -0.9885379672050476 52 62 102
-0.07999999821186066 -0.019999999552965164 0.0005795864854007959 -0.08687533438205719 -0.4831627607345581 -0.8712097406387329 227 227 227
-0.07999999821186066 -0.02868698164820671 0.009999999776482582 0.2362319976091385 -0.9632308483123779 -0.12798729538917542 88 145 152
-0.07999999821186066 -0.029308395460247993 0.019999999552965164 0.4281488060951233 -0.902824342250824 0.039960213005542755 52 88 130
-0.07999999821186066 -0.027372512966394424 0.029999999329447746 0.18665124475955963 -0.631221354007721 -0.752808690071106 52 62 102
-0.07999999821186066 -0.009999999776482582 0.0013725149910897017 -0.007396780885756016 0.05085819214582443 -0.9986785054206848 227 227 227
-0.07999999821186066 0.0 0.0020904962439090014 0.019343333318829536 -0.011871294118463993 -0.9997424483299255 161 180 209
-0.07999999821186066 0.009999999776482582 0.0014458815567195415 -0.01148815918713808 0.018585167825222015 -0.9997612833976746 151 174 209
-0.081094890832901 0.009999999776482582 0.029999999329447746 0.3199811279773712 0.7189491987228394 0.6170284748077393 100 44 46
-0.07999999821186066 0.009599991142749786 0.029999999329447746 0.16624517738819122 0.9209163188934326 0.3525276184082031 100 44 46
-0.07999999821186066 0.009999999776482582 0.02960001491010189 0.008042452856898308 0.10106014460325241 0.99484783411026 100 44 46
-0.07999999821186066 0.009520874358713627 0.03999999910593033 -0.05273128300905228 0.9955602884292603 0.0779685229063034 96 36 38
-0.07999999821186066 0.008314285427331924 0.05000000074505806 0.06720104813575745 0.8200086355209351 -0.5683923959732056 90 15 18
-0.07999999821186066 0.009999999776482582 0.05161980539560318 -0.00741849560290575 -0.04432970657944679 -0.9989894032478333 90 15 18
-0.07999999821186066 0.019999999552965164 0.002233886392787099 0.024898258969187737 -0.39873814582824707 -0.9167267680168152 151 174 209
-0.08908027410507202 0.019999999552965164 0.029999999329447746 0.34948036074638367 0.09644274413585663 0.9319669008255005 75 3 5
-0.07999999821186066 0.019999999552965164 0.027430208399891853 0.388222873210907 0.22643297910690308 0.8933146595954895 83 13 15
-0.08324676752090454 0.019999999552965164 0.03999999910593033 -0.3228866159915924 -0.8323783278465271 -0.45043379068374634 92 30 32
-0.07999999821186066 0.019999999552965164 0.0378323495388031 -0.14093059301376343 -0.277050644159317 -0.9504638314247131 92 30 32
-0.07999999821186066 0.015081863850355148 0.03999999910593033 0.5699135065078735 -0.7414132356643677 -0.35426682233810425 92 30 32
-0.07999999821186066 0.015271530486643314 0.05000000074505806 -0.03617485985159874 -0.2764683663845062 -0.9603419303894043 91 39 39
-0.08864586055278778 0.029999999329447746 0.0 -0.5005981922149658 -0.010186344385147095 -0.8656198382377625 149 171 205
-0.07999999821186066 0.022233886644244194 0.0 0.027739251032471657 -0.7068346738815308 -0.7068346738815308 151 174 209
-0.08948639035224915 0.029999999329447746 0.019999999552965164 0.17715169489383698 0.18794898688793182 0.9660706520080566 73 2 4
-0.07999999821186066 0.027146682143211365 0.019999999552965164 0.2419474571943283 0.1761639565229416 0.9541633725166321 66 4 7
-0.07999999821186066 0.029999999329447746 0.01831160858273506 0.0035223914310336113 0.23599819839000702 0.971747100353241 66 4 7
-0.08907165378332138 0.02693885751068592 0.025331830605864525 0.24255776405334473 0.814267098903656 0.527384877204895 72 2 6
-0.07999999821186066 0.0255570225417614 0.029999999329447746 0.49516624212265015 -0.5666953921318054 -0.6585337519645691 76 5 7
-0.08861275017261505 0.029999999329447746 0.029999999329447746 -0.06550662219524384 -0.8900185227394104 -0.45119383931159973 72 2 6
-0.07999999821186066 0.029999999329447746 0.025908052921295166 -0.06252527236938477 0.07951165735721588 -0.9948710799217224 76 5 7
-0.08756408840417862 0.023876113817095757 0.032492369413375854 -0.06853947043418884 -0.6295406222343445 -0.7739385962486267 75 3 5
-0.08903816342353821 0.03999999910593033 0.009999999776482582 -0.9110584259033203 0.4097318947315216 0.04574211686849594 77 24 25
-0.08815887570381165 0.03999999910593033 0.0 -0.9133054614067078 -0.4004408121109009 -0.07429861277341843 135 155 186
-0.07999999821186066 0.03999999910593033 0.015361710451543331 0.031062213703989983 -0.09766047447919846 0.9947349429130554 78 53 54
-0.07999999821186066 0.03999999910593033 0.024641405791044235 0.01415179017931223 -0.26666730642318726 -0.9636847376823425 78 53 54
-0.08910247683525085 0.030695343390107155 0.023374881595373154 0.4853997826576233 -0.8081603646278381 -0.33356234431266785 73 2 4
-0.08521278202533722 0.05000000074505806 0.009999999776482582 -0.6193674802780151 -0.7683252692222595 0.161431685090065 71 6 8
-0.07999999821186066 0.044638291001319885 0.019999999552965164 -0.30799323320388794 -0.9229395985603333 0.2309170365333557 78 53 54
-0.08578735589981079 0.11999999731779099 0.0 -0.7533075213432312 0.06981455534696579 -0.6539523601531982 105 14 18
-0.085113525390625 0.12999999523162842 0.009999999776482582 -0.8779860734939575 -0.23470701277256012 -0.41719669103622437 104 9 12
-0.07999999821186066 0.12999999523162842 0.0019806099589914083 -0.22051385045051575 0.07711644470691681 -0.9723305702209473 151 173 208
-0.07999999821186066 0.12801940739154816 0.0 -0.8119683265686035 0.13995587825775146 -0.5666743516921997 151 173 208
-0.07999999821186066 0.14000000059604645 0.0018752451287582517 0.25108906626701355 0.036310404539108276 -0.9672827124595642 154 177 213
-0.08559707552194595 0.14000000059604645 0.019999999552965164 -0.4243786334991455 -0.8094540238380432 0.40581637620925903 80 2 6
-0.07999999821186066 0.15000000596046448 0.002233046805486083 0.0020642210729420185 0.0346965566277504 -0.9993957877159119 154 177 213
-0.07999999821186066 0.15000000596046448 0.025563804432749748 0.17638806998729706 -0.17224036157131195 0.9691339135169983 83 2 6
-0.08600319176912308 0.15000000596046448 0.029999999329447746 0.7231308221817017 0.1676996797323227 0.6700437664985657 105 61 75
-0.07999999821186066 0.14530602097511292 0.029999999329447746 0.03528987988829613 0.9876108169555664 0.1529034972190857 83 2 6
-0.07999999821186066 0.14718948304653168 0.03999999910593033 -0.1421509087085724 0.8192480206489563 -0.5555410385131836 83 2 6
-0.07999999821186066 0.15000000596046448 0.04296897351741791 -0.20542874932289124 0.04490333050489426 -0.9776414036750793 83 2 6
-0.07999999821186066 0.1599999964237213 0.003193893702700734 0.05532732233405113 0.19771480560302734 -0.9786969423294067 154 177 213
-0.07999999821186066 0.1547507494688034 0.029999999329447746 0.3000599145889282 -0.938200056552887 0.17246638238430023 83 2 6
-0.07999999821186066 0.15408286452293396 0.03999999910593033 -0.3324071764945984 -0.9161993861198425 -0.2237948775291443 83 2 6
-0.07999999821186066 0.15660545229911804 0.05000000074505806 -0.41527530550956726 0.3876466155052185 -0.8229681253433228 78 4 8
-0.07999999821186066 0.1599999964237213 0.04543557018041611 0.11373557150363922 -0.19587291777133942 0.9740113019943237 78 4 8
-0.07999999821186066 0.1599999964237213 0.05329103767871857 -0.011857805773615837 -0.0652688592672348 -0.9977972507476807 78 4 8
-0.07999999821186066 0.17000000178813934 0.0017526433803141117 -0.0037768795154988766 -0.20286503434181213 -0.9791994094848633 154 177 213
-0.07999999821186066 0.16461829841136932 0.05000000074505806 0.08691171556711197 -0.9299578666687012 -0.35724595189094543 78 4 8
-0.07999999821186066 0.18000000715255737 0.0019486862001940608 -0.04466239735484123 -0.03637469559907913 -0.9983397126197815 154 177 213
-0.07999999821186066 0.1899999976158142 0.000843221670947969 -0.013481920585036278 0.0073822056874632835 -0.9998818635940552 154 177 213
-0.07999999821186066 0.20000000298023224 0.0014325511874631047 -0.027376139536499977 0.01671581156551838 -0.999485433101654 154 177 213
-0.07999999821186066 0.20999999344348907 0.0016001473413780332 -0.03736907243728638 0.010759596712887287 -0.9992436170578003 154 177 213
-0.07999999821186066 0.2199999988079071 0.0016764162573963404 0.02822471410036087 -0.06292880326509476 -0.9976188540458679 154 177 213
-0.07999999821186066 0.23000000417232513 0.0006029575015418231 0.009234732016921043 0.009606079198420048 -0.9999111890792847 154 177 213
-0.07999999821186066 0.23999999463558197 0.0010008161189034581 -0.052202142775058746 0.0545201376080513 -0.9971472024917603 154 177 213
-0.07999999821186066 0.25 0.001927813165821135 -0.028123347088694572 0.04709439352154732 -0.9984944462776184 154 177 213
-0.07999999821186066 0.25999999046325684 0.0017816465115174651 0.03758364915847778 -0.07249267399311066 -0.996660590171814 154 177 213
-0.07999999821186066 0.27000001072883606 0.0006526124197989702 0.004138723481446505 -0.015275701880455017 -0.9998747706413269 154 177 213
-0.07999999821186066 0.2800000011920929 0.000583468412514776 -0.013489672914147377 0.038678161799907684 -0.999160647392273 154 177 213
-0.07999999821186066 0.28999999165534973 0.0015716181369498372 -0.05312115699052811 0.06187719851732254 -0.9966691136360168 154 177 213
-0.07999999821186066 0.30000001192092896 0.0016178860096260905 0.035967256873846054 -0.042018335312604904 -0.9984692335128784 154 178 213
-0.07999999821186066 0.3100000023841858 0.0013128776336088777 0.02031366340816021 0.008769795298576355 -0.9997552037239075 154 178 213
-0.07999999821186066 0.3199999928474426 0.0018165000947192311 0.0014323487412184477 -0.049313198775053024 -0.9987823367118835 154 178 213
-0.07999999821186066 0.33000001311302185 0.0005783011438325047 -0.009407277218997478 0.07032307237386703 -0.9974799156188965 154 178 214
-0.07999999821186066 0.3400000035762787 0.001230882597155869 -0.011429297737777233 0.003290243213996291 -0.9999292492866516 154 178 214
-0.07999999821186066 0.3499999940395355 0.0012664805399253964 -0.033924732357263565 0.0440494641661644 -0.9984531998634338 154 178 214
-0.07999999821186066 0.36000001430511475 0.001461088308133185 -0.0018734040204435587 -0.06019942834973335 -0.9981846213340759 154 178 214
-0.07999999821186066 0.3700000047683716 0.0012394930236041546 0.012523746117949486 0.02572372369468212 -0.9995906352996826 154 178 214
-0.07999999821186066 0.3799999952316284 0.0015797560336068273 0.039560478180646896 -0.01818525604903698 -0.9990516901016235 155 178 214
-0.07999999821186066 0.38999998569488525 0.001245441846549511 0.02733825333416462 0.03999102860689163 -0.9988259673118591 155 178 214
-0.07999999821186066 0.4000000059604645 0.002467566169798374 0.0 0.14650392532348633 -0.9892100691795349 154 177 213
-0.07999999821186066 0.4099999964237213 0.00441194511950016 0.0 -0.0036448678001761436 -0.9999933838844299 154 177 213
-0.07999999821186066 0.41999998688697815 0.002864639274775982 0.0 0.07769893854856491 -0.9969768524169922 154 177 213
-0.07999999821186066 0.4300000071525574 0.004633499309420586 0.0 0.0015529011143371463 -0.9999988079071045 154 177 213
-0.07999999821186066 0.4399999976158142 0.003221951425075531 0.0 0.06360947340726852 -0.9979748725891113 154 177 213
-0.07999999821186066 0.44999998807907104 0.004838150925934315 0.0 -0.007338820956647396 -0.9999730587005615 154 177 213
-0.07999999821186066 0.46000000834465027 0.0030997884459793568 0.0 0.05767924711108208 -0.9983351826667786 154 177 213
-0.07999999821186066 0.4699999988079071 0.0047676037065684795 0.0 -0.002348372247070074 -0.9999972581863403 154 177 213
-0.07999999821186066 0.47999998927116394 0.003211638890206814 0.0 0.05858214572072029 -0.9982826113700867 154 177 213
-0.07999999821186066 0.49000000953674316 0.004832176025956869 0.0 -0.014169372618198395 -0.9998996257781982 154 177 213
-0.07999999821186066 0.5 0.002841751091182232 0.0 0.06349563598632812 -0.9979821443557739 154 177 213
-0.07999999821186066 0.5099999904632568 0.0046205585822463036 0.0 -0.02043890208005905 -0.9997910857200623 154 177 213
-0.07999999821186066 0.5199999809265137 0.002429222920909524 0.0 0.08262299746274948 -0.9965808987617493 154 177 213
-0.07999999821186066 0.5299999713897705 0.0043908702209591866 0.0 -0.03560037538409233 -0.9993661046028137 154 177 213
-0.07999999821186066 0.5400000214576721 0.001630046870559454 0.0 0.12080157548189163 -0.9926766753196716 154 177 213
-0.07999999821186066 0.550000011920929 0.003963864874094725 0.0 -0.05179733783006668 -0.9986576437950134 154 177 213
-0.07999999821186066 0.5600000023841858 0.0006422109436243773 0.0 0.18151932954788208 -0.9833873510360718 154 177 213
-0.07999999821186066 0.5699999928474426 0.0034664771519601345 0.0 0.14921514689922333 -0.9888047575950623 154 177 213
-0.07999999821186066 0.5799999833106995 0.004981197416782379 0.0 -0.028901979327201843 -0.9995822310447693 154 177 213
-0.07999999821186066 0.5899999737739563 0.0023339134640991688 0.0 0.07398196309804916 -0.9972595572471619 154 177 213
-0.07999999821186066 0.6000000238418579 0.004338731523603201 0.0 -0.05345229059457779 -0.9985703825950623 154 177 213
-0.07999999821186066 0.6100000143051147 0.0007263834122568369 0.0 0.17281921207904816 -0.9849535822868347 154 177 213
-0.07999999821186066 0.6200000047683716 0.003507620422169566 0.0 -0.26248279213905334 -0.9649366736412048 154 177 213
-0.07999999821186066 0.6235076785087585 0.0 0.0 -0.7071067690849304 -0.7071067690849304 154 177 213
-0.07999999821186066 0.6379104852676392 0.0 0.0 0.255386620759964 -0.9668390154838562 154 177 213
-0.07999999821186066 0.6399999856948853 0.002089521149173379 0.0 0.2416285127401352 -0.9703688025474548 154 177 213
-0.07999999821186066 0.6499999761581421 0.004206543788313866 0.0 -0.22727687656879425 -0.9738301634788513 154 177 213
-0.07999999821186066 0.6542065143585205 0.0 0.0 -0.7071067690849304 -0.7071067690849304 154 177 213
-0.07999999821186066 0.6671431064605713 0.0 0.0 0.3713640570640564 -0.9284873604774475 154 177 213
-0.07999999821186066 0.6700000166893005 0.0028569730930030346 0.0 0.2522645592689514 -0.967658281326294 154 177 213
-0.07999999821186066 0.6800000071525574 0.004629159811884165 0.0 -0.20656408369541168 -0.9784330725669861 154 177 213
-0.07999999821186066 0.6846292018890381 0.0 0.0 -0.7071067690849304 -0.7071067690849304 154 177 213
-0.07999999821186066 0.6967304944992065 0.0 0.0 0.4369552731513977 -0.8994832038879395 154 177 213
-0.07999999821186066 0.699999988079071 0.00326955015771091 0.0 0.2589588463306427 -0.9658883810043335 154 177 213
-0.07999999821186066 0.7099999785423279 0.004865802358835936 0.0 -0.05924089998006821 -0.9982436895370483 154 177 213
-0.07999999821186066 0.7200000286102295 0.0005630661617033184 0.0 0.17915162444114685 -0.983821451663971 154 177 213
-0.07999999821186066 0.7300000190734863 0.0034279944375157356 0.0 0.15007427334785461 -0.9886747002601624 154 177 213
-0.07999999821186066 0.7400000095367432 0.004958520643413067 0.0 0.11471455544233322 -0.9933984875679016 154 177 213
-0.07000000029802322 -0.75 0.0021451585926115513 -0.06712193787097931 0.3559902012348175 -0.9320759773254395 227 227 227
-0.07000000029802322 -0.7400000095367432 0.004714952316135168 0.008717787452042103 0.04482358694076538 -0.9989568591117859 227 227 227
-0.07000000029802322 -0.7300000190734863 0.003980113193392754 0.01262517087161541 -0.06934763491153717 -0.9975126385688782 227 227 227
-0.07000000029802322 -0.7200000286102295 0.0030079279094934464 -0.09025348722934723 -0.019641511142253876 -0.9957250952720642 227 227 227
-0.07000000029802322 -0.7099999785423279 0.0030980026349425316 -0.014160254038870335 0.04815041273832321 -0.9987397193908691 227 227 227
-0.07000000029802322 -0.699999988079071 0.003913152031600475 -0.0010606867726892233 -0.01967516355216503 -0.9998058676719666 227 227 227
-0.07000000029802322 -0.6899999976158142 0.002917429432272911 0.015121571719646454 0.005991170648485422 -0.9998677372932434 227 227 227
-0.07000000029802322 -0.6800000071525574 0.0034680955577641726 0.010988847352564335 -0.03576529771089554 -0.9992998242378235 227 227 227
-0.07000000029802322 -0.6700000166893005 0.0023075591307133436 0.011825530789792538 0.03688029944896698 -0.9992496967315674 227 227 227
-0.07000000029802322 -0.6600000262260437 0.0033065946772694588 0.023256132379174232 0.03689969331026077 -0.9990483522415161 227 227 227
-0.07000000029802322 -0.6499999761581421 0.003602198325097561 0.030760757625102997 -0.039266884326934814 -0.998755156993866 227 227 227
-0.07000000029802322 -0.6399999856948853 0.0024928716011345387 -0.05935157462954521 0.01893654465675354 -0.99805748462677 227 227 227
-0.07000000029802322 -0.6299999952316284 0.003225380089133978 0.009463141672313213 0.03728605806827545 -0.9992598295211792 227 227 227
-0.07000000029802322 -0.6200000047683716 0.0036310923751443624 0.01811796799302101 -0.035942159593105316 -0.9991896152496338 227 227 227
-0.07000000029802322 -0.6100000143051147 0.0025326230097562075 -0.05324595794081688 -0.08579608798027039 -0.9948889017105103 227 227 227
-0.07000000029802322 -0.6000000238418579 0.0009762663394212723 -0.019481703639030457 0.1778685599565506 -0.9838613867759705 227 227 227
-0.07000000029802322 -0.5899999737739563 0.0036597209982573986 0.025755366310477257 0.007989125326275826 -0.9996363520622253 227 227 227
-0.07000000029802322 -0.5799999833106995 0.0025719485711306334 -0.025108419358730316 -0.0030178159940987825 -0.9996801614761353 227 227 227
-0.07000000029802322 -0.5699999928474426 0.002934252843260765 0.011412435211241245 0.04306653514504433 -0.9990070462226868 227 227 227
-0.07000000029802322 -0.5600000023841858 0.0035869022831320763 -0.030381137505173683 -0.03090156801044941 -0.9990605711936951 227 227 227
-0.07000000029802322 -0.550000011920929 0.0024718025233596563 0.016492199152708054 -0.0019283444853499532 -0.9998621344566345 227 227 227
-0.07000000029802322 -0.5400000214576721 0.002843697089701891 0.007648849859833717 -0.05204707011580467 -0.9986153244972229 227 227 227
-0.07000000029802322 -0.5299999713897705 0.0014266015496104956 -0.06465595960617065 0.029545780271291733 -0.9974701404571533 227 227 227
-0.07000000029802322 -0.5199999809265137 0.0022204958368092775 0.01728207990527153 0.023594506084918976 -0.999572217464447 227 227 227
-0.07000000029802322 -0.5099999904632568 0.002478145295754075 -0.04852628335356712 -0.06104914844036102 -0.9969544410705566 227 227 227
-0.07000000029802322 -0.5 0.0008965920424088836 -0.021583540365099907 0.15202027559280396 -0.988141655921936 227 227 227
-0.07000000029802322 -0.49000000953674316 0.0032999226823449135 0.024419788271188736 -0.008280188776552677 -0.9996675252914429 227 227 227
-0.07000000029802322 -0.47999998927116394 0.002073241863399744 -0.05309125781059265 -0.005138696637004614 -0.9985764622688293 227 227 227
-0.07000000029802322 -0.4699999988079071 0.0023405698593705893 0.011805495247244835 0.03883044794201851 -0.9991760849952698 227 227 227
-0.07000000029802322 -0.46000000834465027 0.002980537712574005 -0.02182367444038391 -0.04439677298069 -0.9987756013870239 227 227 227
-0.07000000029802322 -0.44999998807907104 0.001622266136109829 -0.011409216560423374 -0.009016166441142559 -0.9998942613601685 227 227 227
-0.07000000029802322 -0.4399999976158142 0.0017537374515086412 -0.050485000014305115 0.03328575938940048 -0.9981699585914612 227 227 227
-0.07000000029802322 -0.4300000071525574 0.0023471396416425705 0.01688280701637268 0.014014140702784061 -0.9997592568397522 227 227 227
-0.07000000029802322 -0.41999998688697815 0.002456989837810397 -0.04329727962613106 -0.049346666783094406 -0.9978427886962891 227 227 227
-0.07000000029802322 -0.4099999964237213 0.0010098308557644486 -0.06853000074625015 0.16537870466709137 -0.9838463068008423 227 227 227
-0.07000000029802322 -0.4000000059604645 0.002699665492400527 0.023172741755843163 -0.024618130177259445 -0.9994283318519592 227 227 227
-0.07000000029802322 -0.38999998569488525 0.0016355726402252913 -0.040369436144828796 0.08397631347179413 -0.9956496953964233 227 227 227
-0.07000000029802322 -0.3799999952316284 0.003161997301504016 0.01915713958442211 -0.018808670341968536 -0.9996395707130432 227 227 227
-0.07000000029802322 -0.3700000047683716 0.002132103778421879 0.024290425702929497 -0.014411350712180138 -0.9996010661125183 227 227 227
-0.07000000029802322 -0.36000001430511475 0.002139885677024722 0.009276018477976322 0.01820714771747589 -0.9997912049293518 227 227 227
-0.07000000029802322 -0.3499999940395355 0.0024571751710027456 -0.018553195521235466 -0.00017369032138958573 -0.9998278617858887 227 227 227
-0.07000000029802322 -0.3400000035762787 0.002430434338748455 0.05601159483194351 -0.04686680808663368 -0.9973295331001282 227 227 227
-0.07000000029802322 -0.33000001311302185 0.0014584824675694108 -0.03874225914478302 0.07526194304227829 -0.9964109063148499 227 227 227
-0.07000000029802322 -0.3199999928474426 0.0028583621606230736 0.02040259540081024 -0.020710881799459457 -0.9995772838592529 227 227 227
-0.07000000029802322 -0.3100000023841858 0.0018396403174847364 -0.027999278157949448 0.05019722133874893 -0.998346745967865 227 227 227
-0.07000000029802322 -0.30000001192092896 0.0029873603489249945 0.02168809249997139 -0.02912556193768978 -0.9993404746055603 227 227 227
-0.07000000029802322 -0.28999999165534973 0.0019187486032024026 0.022124093025922775 -0.030268043279647827 -0.9992969632148743 227 227 227
-0.07000000029802322 -0.2800000011920929 0.0016790353693068027 -0.031323447823524475 0.019579485058784485 -0.9993175268173218 227 227 227
-0.07000000029802322 -0.27000001072883606 0.0020810153800994158 -0.013617271557450294 0.007659459486603737 -0.9998779296875 227 227 227
-0.07000000029802322 -0.25999999046325684 0.001998970517888665 0.021412529051303864 -0.005432988982647657 -0.9997559785842896 227 227 227
-0.07000000029802322 -0.25 0.0021978868171572685 -0.010111088864505291 -0.022614747285842896 -0.9996930956840515 227 227 227
-0.07000000029802322 -0.23999999463558197 0.0017478088848292828 0.0008359333733096719 -0.04529527202248573 -0.9989733099937439 227 227 227
-0.07000000029802322 -0.23000000417232513 0.0009222052758559585 -0.007803302723914385 0.05149458721280098 -0.9986428022384644 227 227 227
-0.07000000029802322 -0.2199999988079071 0.0016459180042147636 0.002507568337023258 0.04161353036761284 -0.9991306066513062 227 227 227
-0.07000000029802322 -0.20999999344348907 0.0023402932565659285 0.004688330926001072 -0.04746297001838684 -0.9988619685173035 227 227 227
-0.07000000029802322 -0.20000000298023224 0.0012932070530951023 0.012482667341828346 0.05302675440907478 -0.9985150694847107 227 227 227
-0.07000000029802322 -0.1899999976158142 0.0021691920701414347 0.00974603183567524 -0.04057731851935387 -0.9991288781166077 227 227 227
-0.07000000029802322 -0.18000000715255737 0.0008944988367147744 0.0012440490536391735 0.02011069841682911 -0.999796986579895 227 227 227
-0.07000000029802322 -0.17000000178813934 0.0018259062198922038 0.00953290518373251 0.043547339737415314 -0.9990058541297913 227 227 227
-0.07000000029802322 -0.1599999964237213 0.0022742401342839003 -0.020013049244880676 -0.020560894161462784 -0.9995882511138916 227 227 227
-0.07000000029802322 -0.15000000596046448 0.0016702795401215553 0.013090172782540321 0.01109183207154274 -0.9998527765274048 227 227 227
-0.07000000029802322 -0.14000000059604645 0.0021284616086632013 0.010313943959772587 -0.03762641176581383 -0.9992386698722839 227 227 227
-0.07000000029802322 -0.12999999523162842 0.0011261353502050042 -0.023268183693289757 0.04664742201566696 -0.9986403584480286 227 227 227
-0.07000000029802322 -0.11999999731779099 0.00322329462505877 0.06569655984640121 0.3915390968322754 -0.917813241481781 227 227 227
-0.07000000029802322 -0.11226573586463928 0.009999999776482582 0.059619221836328506 0.9676750302314758 -0.24505211412906647 82 82 78
-0.07000000029802322 -0.11265617609024048 0.019999999552965164 0.0718986839056015 0.9866625666618347 0.1460394263267517 108 109 106
-0.07000000029802322 -0.11571052670478821 0.029999999329447746 0.04860882833600044 0.6273464560508728 -0.7772217392921448 140 142 141
-0.07000000029802322 -0.10999999940395355 0.0318729467689991 0.004637900274246931 0.0575556717813015 -0.9983315467834473 70 81 110
-0.07000000029802322 -0.10000000149011612 0.03253736346960068 0.0009283910039812326 0.015445748344063759 -0.9998802542686462 55 63 64
-0.07000000029802322 -0.09610030800104141 0.009999999776482582 -0.009247868321835995 -0.99993896484375 -0.00604505930095911 119 119 116
-0.07000000029802322 -0.09595023840665817 0.0 -0.017876040190458298 -0.9997309446334839 -0.014780542813241482 16 21 76
-0.07000000029802322 -0.09606827050447464 0.019999999552965164 -0.005094180349260569 -0.9946097135543823 0.10356415063142776 121 120 117
-0.07000000029802322 -0.09000000357627869 0.028087811544537544 0.007053615525364876 -0.479674369096756 0.8774182200431824 39 46 46
-0.07000000029802322 -0.09000000357627869 0.0319121889770031 0.00961739756166935 -0.05003700777888298 -0.9987010359764099 39 46 46
-0.07000000029802322 -0.07999999821186066 0.028150534257292747 0.010190930217504501 0.03761329501867294 0.9992403984069824 40 46 46
-0.07000000029802322 -0.07999999821186066 0.031849466264247894 0.010190929286181927 0.037613291293382645 -0.9992403984069824 40 46 46
-0.07000000029802322 -0.07000000029802322 0.02744935266673565 -0.014039517380297184 -0.04018841311335564 0.9990934729576111 39 46 46
-0.07000000029802322 -0.07000000029802322 0.03255064785480499 -0.014039861969649792 -0.03957265987992287 -0.9991180300712585 39 46 46
-0.07000000029802322 -0.05999999865889549 0.028636448085308075 0.010792119428515434 0.05078311637043953 0.998651385307312 40 46 48
-0.07000000029802322 -0.05999999865889549 0.03137124702334404 0.013473857194185257 0.05299009382724762 -0.9985041618347168 40 46 48
-0.07000000029802322 -0.05000000074505806 0.02755647338926792 0.009159605950117111 0.24797478318214417 0.9687231779098511 40 46 46
-0.07000000029802322 -0.05000000074505806 0.03244352713227272 0.009414466097950935 0.09240158647298813 -0.9956772923469543 40 46 46
-0.07000000029802322 -0.04468696564435959 0.009999999776482582 -0.03489571437239647 0.9993367195129395 0.010414605028927326 157 160 156
-0.07000000029802322 -0.0446624755859375 0.0 -0.31586912274360657 0.9487999081611633 0.0023346522357314825 41 49 107
-0.07000000029802322 -0.04484756290912628 0.019999999552965164 -0.12142187356948853 0.9806140661239624 0.15379461646080017 24 73 153
-0.07000000029802322 -0.03999999910593033 0.03400510549545288 -0.07589051127433777 -0.029309378936886787 -0.9966853260993958 80 85 86
-0.07000000029802322 -0.029999999329447746 0.0316276028752327 0.041351113468408585 -0.2823296785354614 -0.9584258198738098 58 74 102
-0.07000000029802322 -0.019999999552965164 0.0014156675897538662 0.04331433027982712 -0.3755040764808655 -0.9258080720901489 227 227 227
-0.07000000029802322 -0.028663024306297302 0.009999999776482582 -0.024798303842544556 -0.999572217464447 0.015503957867622375 42 59 63
-0.07000000029802322 -0.027634354308247566 0.019999999552965164 0.010127588175237179 -0.997403085231781 0.07130607962608337 25 86 154
-0.07000000029802322 -0.026675337925553322 0.029999999329447746 0.041856590658426285 -0.812206506729126 -0.581866443157196 58 74 102
-0.07000000029802322 -0.009999999776482582 0.0017079008975997567 0.02960978075861931 0.037067051976919174 -0.9988740086555481 227 227 227
-0.07000000029802322 0.0 0.002452815417200327 -0.007575971074402332 -0.05467936396598816 -0.998475193977356 144 166 199
-0.07000000029802322 0.009999999776482582 0.0008594624814577401 -0.017633715644478798 0.07193573564291 -0.9972533583641052 134 154 186
-0.0794079601764679 0.009999999776482582 0.029999999329447746 -0.6319450736045837 0.3415343761444092 0.6957008838653564 100 44 46
-0.07000000029802322 0.009999999776482582 0.036325350403785706 0.05059042572975159 0.282306969165802 0.9579892158508301 93 22 24
-0.07000000029802322 0.007222137413918972 0.03999999910593033 0.09383246302604675 0.8877959251403809 0.45057061314582825 93 22 24
-0.07000000029802322 0.008077621459960938 0.05000000074505806 0.09536353498697281 0.811046302318573 -0.5771565437316895 94 32 35
-0.07000000029802322 0.009999999776482582 0.051847539842128754 0.005534294992685318 -0.03885934129357338 -0.999229371547699 94 32 35
-0.07000000029802322 0.019999999552965164 0.002238547196611762 0.00012943103502038866 -0.39428067207336426 -0.9189900755882263 134 154 185
-0.07194816321134567 0.019999999552965164 0.019999999552965164 0.6802765130996704 0.25673791766166687 0.6865198612213135 76 2 4
-0.07000000029802322 0.018903885036706924 0.019999999552965164 -0.043612923473119736 0.7580953240394592 0.6506837606430054 76 2 4
-0.07000000029802322 0.019999999552965164 0.018903886899352074 0.24558186531066895 -0.007882168516516685 0.9693437814712524 76 2 4
-0.07000000029802322 0.018611373379826546 0.029999999329447746 0.16651630401611328 0.9853355288505554 0.03723138943314552 76 2 5
-0.07000000029802322 0.019999999552965164 0.03620241954922676 -0.21987612545490265 -0.46601662039756775 -0.85701984167099 109 51 53
-0.07000000029802322 0.018547363579273224 0.03999999910593033 -0.12134601920843124 -0.20745480060577393 -0.9706892371177673 109 51 53
-0.07000000029802322 0.015438918955624104 0.05000000074505806 -0.0007298073032870889 -0.4578442871570587 -0.8890320658683777 88 31 32
-0.07000000029802322 0.022238541394472122 0.0 0.0001225830492330715 -0.7071067690849304 -0.7071067690849304 134 154 185
-0.07000000029802322 0.029999999329447746 0.019628439098596573 -0.05527282878756523 0.07506229728460312 0.9956458210945129 74 2 4
-0.07000000029802322 0.029999999329447746 0.021569019183516502 -0.03499159961938858 -0.5522992610931396 -0.8329112529754639 74 2 4
-0.07000000029802322 0.023398742079734802 0.029999999329447746 -0.18256020545959473 -0.8918243646621704 -0.4139094352722168 76 2 5
-0.07288970798254013 0.03999999910593033 0.009999999776482582 0.3695206642150879 -0.4102874994277954 0.8337377309799194 73 15 17
-0.07000000029802322 0.03711029142141342 0.009999999776482582 -0.1310451477766037 0.6170881986618042 0.7759054899215698 73 15 17
-0.07000000029802322 0.03999999910593033 0.007110261823982 0.16543085873126984 -0.2929004728794098 0.9417228698730469 73 15 17
-0.07000000029802322 0.03999999910593033 0.021143192425370216 -0.18725214898586273 -0.6024401783943176 -0.775888204574585 76 4 4
-0.07000000029802322 0.042889710515737534 0.009999999776482582 0.40006864070892334 -0.910225510597229 0.10693292319774628 73 15 17
-0.07000000029802322 0.04114319011569023 0.019999999552965164 -0.21044549345970154 -0.8173955678939819 -0.5362622141838074 76 4 4
-0.07000000029802322 0.12646247446537018 0.0 0.0 0.4801597595214844 -0.8771810531616211 127 88 108
-0.07000000029802322 0.12999999523162842 0.0035375028382986784 0.016514332965016365 0.2007598727941513 -0.9795012474060059 127 88 108
-0.07000000029802322 0.14000000059604645 0.009179462678730488 0.1438930779695511 -0.9570833444595337 -0.25156766176223755 128 90 110
-0.07000000029802322 0.15000000596046448 0.0017706028884276748 -0.04119677096605301 -0.2575271725654602 -0.9653924703598022 154 177 213
-0.07000000029802322 0.1470462828874588 0.029999999329447746 -0.19858038425445557 0.8871736526489258 -0.4165198504924774 74 3 6
-0.07000000029802322 0.15000000596046448 0.02440427616238594 -0.23658548295497894 -0.04388899356126785 0.9706189036369324 102 60 74
-0.07495994865894318 0.15000000596046448 0.03999999910593033 -0.5381420850753784 0.33275705575942993 -0.7743874192237854 79 36 37
-0.07000000029802322 0.15000000596046448 0.03409741073846817 -0.17735633254051208 0.16211813688278198 -0.970702052116394 74 3 6
-0.07000000029802322 0.1599999964237213 0.004239055793732405 0.007617717143148184 0.03953604772686958 -0.9991890788078308 154 177 213
-0.07000000029802322 0.15293830633163452 0.029999999329447746 -0.24914655089378357 -0.9529982209205627 -0.17239601910114288 74 3 6
-0.07000000029802322 0.1599999964237213 0.04376829043030739 -0.14524029195308685 0.07141607254743576 0.9868155717849731 113 75 90
-0.07000000029802322 0.15603195130825043 0.05000000074505806 -0.08265990018844604 0.9169185161590576 -0.39041998982429504 99 39 41
-0.07000000029802322 0.1599999964237213 0.053520336747169495 -0.050493039190769196 -0.06262240558862686 -0.9967591762542725 99 39 41
-0.07000000029802322 0.17000000178813934 0.001140858163125813 -0.020248644053936005 -0.22442494332790375 -0.9742810130119324 154 177 213
-0.07000000029802322 0.16528557240962982 0.05000000074505806 -0.14271004498004913 -0.869610607624054 -0.4726639986038208 150 135 148
-0.07000000029802322 0.18000000715255737 0.0016508027911186218 -0.03825175017118454 0.007045932114124298 -0.9992433190345764 154 177 213
-0.07000000029802322 0.1899999976158142 0.00179809529799968 0.011718875728547573 -0.04038560017943382 -0.9991154670715332 154 177 213
-0.07000000029802322 0.20000000298023224 0.000777882756665349 -0.019587503746151924 0.0072041647508740425 -0.9997822046279907 154 177 213
-0.07000000029802322 0.20999999344348907 0.0009305494022555649 -0.043119944632053375 0.025574784725904465 -0.9987425208091736 154 177 213
-0.07000000029802322 0.2199999988079071 0.0015454445965588093 -0.031374815851449966 0.027119077742099762 -0.9991397261619568 154 177 213
-0.07000000029802322 0.23000000417232513 0.0016115003963932395 0.016330238431692123 -0.06632670760154724 -0.9976643323898315 154 177 213
-0.07000000029802322 0.23999999463558197 0.0005406081327237189 0.022498367354273796 0.034824397414922714 -0.9991401433944702 154 177 213
-0.07000000029802322 0.25 0.001458328333683312 -0.011752556078135967 0.05190732330083847 -0.9985827207565308 154 177 213
-0.07000000029802322 0.25999999046325684 0.001460461295209825 -0.03374842181801796 0.018463345244526863 -0.9992598295211792 154 177 213
-0.07000000029802322 0.27000001072883606 0.0015199289191514254 0.027375930920243263 -0.018763024359941483 -0.9994490742683411 154 177 213
-0.07000000029802322 0.2800000011920929 0.0016438582679256797 0.034567102789878845 -0.05463672801852226 -0.9979077577590942 154 177 213
-0.07000000029802322 0.28999999165534973 0.0005203927285037935 -0.046648647636175156 0.023953314870595932 -0.9986241459846497 154 178 213
-0.07000000029802322 0.30000001192092896 0.0012195769231766462 -0.022481052204966545 0.024669433012604713 -0.9994428753852844 154 178 213
-0.07000000029802322 0.3100000023841858 0.0009553610580042005 0.00031417858554050326 0.01341571006923914 -0.9999099373817444 154 178 213
-0.07000000029802322 0.3199999928474426 0.0010627045994624496 -0.010027354583144188 0.005843788851052523 -0.9999326467514038 154 178 214
-0.07000000029802322 0.33000001311302185 0.0017199860885739326 0.016671601682901382 0.01378876157104969 -0.999765932559967 154 178 214
-0.07000000029802322 0.3400000035762787 0.0014077740488573909 0.016360877081751823 -0.0016722194850444794 -0.9998647570610046 154 178 214
